ply
format ascii 1.0
element vertex 1256
property float x
property float y
property float z
property uchar red
property uchar green
property uchar blue
end_header
53.4783 27.3515 -23.002  255 255 255
-64.1834 33.4736 -40.9934  255 255 255
-34.8197 37.0263 -61.4157  255 255 255
-62.846 33.5532 -42.1837  255 255 255
-55.2236 34.2341 -46.8384  255 255 255
-40.4588 35.9924 -58.192  255 255 255
-40.4568 35.9937 -58.221  255 255 255
50.9158 20.3385 6.30248  255 255 255
51.1504 20.3117 6.51569  255 255 255
50.706 20.3192 5.95758  255 255 255
50.7877 20.357 5.88175  255 255 255
-56.1412 33.5636 -46.7308  255 255 255
-51.9345 34.1676 -50.0321  255 255 255
-37.54 35.9789 -60.0621  255 255 255
-29.9417 36.7148 -64.9299  255 255 255
49.323 20.6073 3.52429  255 255 255
-29.4186 36.4295 -65.9804  255 255 255
52.9074 26.4218 -24.8197  255 255 255
-81.6016 30.6052 -31.3464  255 255 255
53.2717 18.5848 10.4353  255 255 255
55.4731 17.5912 14.9389  255 255 255
-81.8122 30.3576 -31.3187  255 255 255
50.9088 19.5888 5.60484  255 255 255
50.7 19.4867 5.85163  255 255 255
15.558 37.04 -74.878  255 255 255
-77.9169 30.0046 -31.5324  255 255 255
-34.295 35.343 -63.3533  255 255 255
24.1909 37.1847 -76.3884  255 255 255
50.4047 19.2319 5.2802  255 255 255
59.0974 15.7571 21.7715  255 255 255
17.9342 36.589 -75.4034  255 255 255
-37.1246 34.3992 -61.4595  255 255 255
-149.785 39.8533 -68.1251  255 255 255
49.4895 19.2949 3.78739  255 255 255
48.7022 20.229 -0.767078  255 255 255
51.9001 18.8622 5.56758  255 255 255
51.4702 18.6585 6.49345  255 255 255
-84.0967 29.2067 -30.8298  255 255 255
45.5817 28.5085 -41.12  255 255 255
50.0407 18.8823 4.46152  255 255 255
55.9962 16.9291 13.8863  255 255 255
-36.4871 33.8125 -61.5691  255 255 255
51.943 18.2391 7.15843  255 255 255
-74.6419 29.8547 -37.2563  255 255 255
-57.6181 31.427 -47.9746  255 255 255
51.5265 18.3111 6.54599  255 255 255
55.4096 16.6009 14.5066  255 255 255
-63.8479 30.679 -43.9051  255 255 255
-80.4188 28.9634 -33.8024  255 255 255
-77.7466 28.6793 -33.264  255 255 255
-66.1133 30.2776 -43.2566  255 255 255
-54.2041 31.3856 -51.1494  255 255 255
-54.0954 31.2647 -50.6919  255 255 255
-54.2041 31.3856 -51.1494  255 255 255
-64.0778 30.351 -44.7698  255 255 255
-77.9096 28.9381 -35.7729  255 255 255
-62.6973 30.3543 -45.6095  255 255 255
55.8367 15.9508 15.057  255 255 255
58.7325 14.8136 20.847  255 255 255
-73.3866 29.9516 -42.3911  255 255 255
-73.8038 29.7834 -42.5984  255 255 255
17.6871 33.4604 -71.6083  255 255 255
51.7014 17.3702 6.59588  255 255 255
-56.1134 30.6609 -50.7768  255 255 255
50.8486 17.5533 4.84442  255 255 255
50.8456 17.5598 4.83511  255 255 255
-73.9532 29.3919 -42.3501  255 255 255
49.8956 24.9347 -32.3723  255 255 255
-80.3998 27.9537 -34.7677  255 255 255
-84.9858 27.3712 -31.3479  255 255 255
-80.0505 27.7962 -34.9812  255 255 255
57.8827 14.4927 18.5495  255 255 255
61.349 13.1169 25.2852  255 255 255
-77.9349 27.815 -36.6205  255 255 255
-73.6896 28.904 -43.1189  255 255 255
-8.6207 32.0518 -68.2344  255 255 255
54.196 22.7499 -23.7508  255 255 255
50.7475 17.043 4.01968  255 255 255
-78.6582 27.283 -35.934  255 255 255
-78.7201 27.3332 -36.1717  255 255 255
-0.746368 30.8307 -67.3513  255 255 255
47.722 17.8078 -2.18375  255 255 255
-41.0866 30.5635 -62.4518  255 255 255
-60.9476 28.1365 -47.0686  255 255 255
-43.2358 29.9054 -60.821  255 255 255
-43.2173 29.8965 -60.8274  255 255 255
38.9956 30.261 -69.4298  255 255 255
-66.6721 27.3663 -44.0597  255 255 255
50.8915 16.1037 4.01511  255 255 255
41.4128 29.792 -68.5741  255 255 255
-85.0139 25.8026 -33.2868  255 255 255
47.7929 23.9811 -38.5449  255 255 255
-43.2579 29.549 -61.4686  255 255 255
49.8535 16.2343 0.808386  255 255 255
-82.0764 25.5928 -35.7018  255 255 255
-44.8264 29.1024 -62.1874  255 255 255
47.6966 16.6517 -2.81653  255 255 255
49.8563 15.7578 1.93606  255 255 255
49.8667 15.7643 1.918  255 255 255
59.0152 12.4524 19.9516  255 255 255
-73.446 26.9755 -46.8102  255 255 255
49.0395 15.8194 -0.0170265  255 255 255
53.9658 14.101 9.64453  255 255 255
52.6427 14.4091 7.03875  255 255 255
-79.609 25.1564 -38.146  255 255 255
55.5992 13.2213 12.1783  255 255 255
-60.5124 29.9069 -72.0568  255 255 255
-53.4489 23.9094 -40.9648  255 255 255
43.3528 27.1475 -65.229  255 255 255
-33.2013 27.0955 -59.9576  255 255 255
47.8372 15.9294 -3.72291  255 255 255
53.4331 13.7699 8.00828  255 255 255
53.3584 13.7451 8.10011  255 255 255
58.8057 11.7208 18.5355  255 255 255
0.997693 26.4853 -62.4634  255 255 255
-2.15003 26.4985 -62.3224  255 255 255
-8.28248 26.4063 -61.8234  255 255 255
49.0852 21.4378 -37.0619  255 255 255
53.714 13.2863 8.54253  255 255 255
-80.8568 23.8322 -36.8733  255 255 255
-3.09277 26.087 -61.6761  255 255 255
52.926 13.7605 5.27247  255 255 255
52.6413 13.6312 5.87824  255 255 255
-83.6029 23.5728 -35.5036  255 255 255
-0.229197 25.5024 -61.3137  255 255 255
-90.9659 24.3164 -42.5535  255 255 255
-80.2762 23.2585 -39.295  255 255 255
-79.7973 22.99 -38.0106  255 255 255
54.592 12.1574 8.67764  255 255 255
-42.6014 24.3791 -57.5444  255 255 255
51.8956 12.6321 4.26374  255 255 255
51.8956 12.6321 4.26374  255 255 255
34.8995 23.6517 -61.6366  255 255 255
53.8154 11.9956 7.56708  255 255 255
-65.8538 23.4355 -49.3025  255 255 255
-83.2131 21.9822 -37.5192  255 255 255
-83.0277 21.8853 -37.0439  255 255 255
35.8341 23.3759 -60.9645  255 255 255
52.6449 12.1575 5.63144  255 255 255
-14.3448 23.0633 -57.2639  255 255 255
-40.0616 23.3265 -56.1254  255 255 255
50.5511 12.6557 1.34348  255 255 255
29.4309 22.6566 -60.1118  255 255 255
-79.3638 21.4776 -41.9135  255 255 255
51.3273 11.8268 2.26913  255 255 255
53.8805 11.078 6.33998  255 255 255
15.2041 21.4605 -57.8533  255 255 255
50.5158 11.9395 0.479547  255 255 255
52.6223 11.1976 4.85621  255 255 255
-20.7126 21.5149 -55.4812  255 255 255
55.189 10.3033 10.0386  255 255 255
-114.015 23.735 -52.4984  255 255 255
-65.2988 21.7665 -51.8817  255 255 255
-40.4219 21.1176 -52.5716  255 255 255
31.4801 20.7794 -57.9038  255 255 255
49.2671 11.9925 -2.47679  255 255 255
50.5657 11.5442 0.419425  255 255 255
51.3261 11.2846 1.80789  255 255 255
-65.1253 21.5748 -52.7003  255 255 255
-17.0375 20.532 -54.4349  255 255 255
63.2303 7.16319 26.6016  255 255 255
49.5542 11.4872 -1.72925  255 255 255
49.9348 11.422 -1.21789  255 255 255
-42.1308 20.4932 -52.7933  255 255 255
-40.2504 20.1698 -51.7043  255 255 255
63.0577 7.11009 25.625  255 255 255
62.766 7.10287 24.8927  255 255 255
-85.5878 19.3334 -37.9494  255 255 255
58.7112 8.39462 16.2862  255 255 255
58.6466 8.34737 16.3101  255 255 255
62.7839 7.08149 24.5249  255 255 255
50.5364 10.8147 -0.272395  255 255 255
63.7808 6.57897 27.0069  255 255 255
49.3193 11.1196 -3.04538  255 255 255
52.5194 10.102 3.63029  255 255 255
52.3971 10.0527 3.2171  255 255 255
46.9164 11.6143 -7.96159  255 255 255
53.2265 9.53814 5.01815  255 255 255
-18.5966 18.562 -52.1021  255 255 255
52.4362 9.65346 3.33393  255 255 255
-6.46545 18.1985 -52.3899  255 255 255
53.6232 9.18466 5.48678  255 255 255
63.0881 6.10627 25.3564  255 255 255
-14.9062 17.8704 -51.5315  255 255 255
52.5123 9.3549 2.63147  255 255 255
63.6204 5.8791 26.514  255 255 255
63.7274 5.89337 26.3598  255 255 255
-111.443 20.4386 -50.3623  255 255 255
-111.443 20.4386 -50.3623  255 255 255
-78.6977 18.351 -45.1445  255 255 255
-42.5825 17.7401 -49.1097  255 255 255
-20.9669 17.3576 -50.5727  255 255 255
47.2827 10.5048 -9.08319  255 255 255
54.1388 8.27967 6.08241  255 255 255
54.1023 8.2748 6.10339  255 255 255
50.9516 9.09819 -0.357588  255 255 255
52.8565 13.5834 -32.7141  255 255 255
52.4211 8.5943 2.32142  255 255 255
-13.8106 16.3411 -50.1958  255 255 255
52.322 8.31938 1.98081  255 255 255
52.2947 8.3172 2.00818  255 255 255
52.326 8.32865 1.98421  255 255 255
-12.9698 15.7256 -49.2591  255 255 255
-79.5592 16.5036 -42.8596  255 255 255
-28.1962 15.6018 -48.1943  255 255 255
-13.9281 15.3441 -48.8612  255 255 255
-13.9137 15.3185 -48.8149  255 255 255
53.9496 7.42184 5.15284  255 255 255
61.3862 5.56619 18.6764  255 255 255
58.4113 6.04011 14.3816  255 255 255
51.7924 7.74757 0.683584  255 255 255
56.4417 6.533 9.84625  255 255 255
52.2153 7.5419 1.43237  255 255 255
-16.9629 14.4551 -47.2456  255 255 255
57.7477 5.80074 12.6876  255 255 255
50.9878 7.23289 -1.64057  255 255 255
51.1692 7.26309 -2.00801  255 255 255
56.8818 5.59968 10.6469  255 255 255
-8.15566 13.3047 -46.8715  255 255 255
-45.5092 13.7051 -45.6692  255 255 255
-9.14586 13.0547 -46.5423  255 255 255
55.452 5.67844 7.5827  255 255 255
-40.999 13.2138 -45.2627  255 255 255
50.1584 6.85503 -3.7329  255 255 255
55.7521 5.40577 7.39475  255 255 255
55.7383 5.39823 7.42718  255 255 255
53.7251 5.74259 3.4049  255 255 255
51.7748 6.26514 -0.732416  255 255 255
-34.62 12.5946 -44.3603  255 255 255
52.5798 5.86864 1.02484  255 255 255
-15.3271 11.9809 -45.0136  255 255 255
-10.6913 11.8476 -45.1534  255 255 255
-73.5163 13.1068 -43.1514  255 255 255
-15.1966 11.5354 -44.2005  255 255 255
47.9078 6.6481 -8.60955  255 255 255
-55.2361 12.1975 -42.6969  255 255 255
-18.5417 11.5418 -44.4774  255 255 255
-18.0519 11.5176 -44.2566  255 255 255
46.6485 6.7911 -11.9041  255 255 255
51.2751 5.50503 -3.03519  255 255 255
50.4985 5.33281 -3.99876  255 255 255
52.2264 5.06906 -1.44494  255 255 255
-20.853 10.4993 -42.7989  255 255 255
51.7058 4.6984 -1.44698  255 255 255
63.7775 1.88992 22.4224  255 255 255
52.5076 4.1521 0.179818  255 255 255
57.501 2.92297 10.4356  255 255 255
-26.2141 9.31351 -41.625  255 255 255
-32.0669 9.3513 -41.4662  255 255 255
51.6352 4.04255 -2.02741  255 255 255
5.94185 1.42663 23.4845  255 255 255
63.1669 1.24926 21.9799  255 255 255
-46.8302 9.18466 -40.0458  255 255 255
57.1502 2.51898 9.95794  255 255 255
-3.42208 1.58509 21.8933  255 255 255
59.1172 2.05631 11.7273  255 255 255
52.8408 2.96607 -0.259884  255 255 255
57.5469 1.75496 9.49826  255 255 255
-31.0222 7.44818 -38.8348  255 255 255
57.4161 1.64916 9.16143  255 255 255
-121.047 9.40427 -35.3622  255 255 255
52.8871 2.48367 -0.26654  255 255 255
58.8481 1.27606 12.1743  255 255 255
56.5658 1.66222 7.24746  255 255 255
51.9688 2.51421 -2.82349  255 255 255
51.9192 2.50064 -2.69389  255 255 255
58.0784 1.20528 10.4532  255 255 255
-119.998 8.72461 -33.5021  255 255 255
63.1178 0.0210216 20.2188  255 255 255
58.1511 0.880054 10.4138  255 255 255
48.9556 2.59488 -9.07426  255 255 255
-75.1084 7.20724 -35.9088  255 255 255
50.3068 2.21325 -6.41743  255 255 255
54.0728 1.54326 1.24191  255 255 255
64.2535 -0.506462 21.809  255 255 255
54.2201 1.33122 2.04571  255 255 255
56.7289 0.889592 7.05248  255 255 255
54.5376 1.09012 2.79826  255 255 255
53.6681 1.07365 0.864011  255 255 255
58.7111 0.106199 11.474  255 255 255
54.8808 0.78879 2.97964  255 255 255
54.6351 0.819994 2.61118  255 255 255
54.618 0.815998 2.62818  255 255 255
57.8599 0.0764488 9.18113  255 255 255
58.5066 -0.0203624 10.6532  255 255 255
63.6774 -1.09319 20.9559  255 255 255
65.2068 -1.45342 25.2268  255 255 255
51.4951 1.13109 -4.58259  255 255 255
59.1642 -0.418451 13.5147  255 255 255
54.7947 0.403346 2.52232  255 255 255
55.1442 0.321893 3.68386  255 255 255
56.4539 -0.0161092 6.42477  255 255 255
54.8991 0.396266 1.15514  255 255 255
58.0574 -0.333821 9.43043  255 255 255
59.277 -0.547625 11.9046  255 255 255
64.6664 -1.64274 23.9166  255 255 255
-26.7026 4.16527 -35.2865  255 255 255
-26.6994 4.13388 -34.9992  255 255 255
55.5834 -0.101293 3.99652  255 255 255
7.08325 -1.60612 25.5155  255 255 255
59.6383 -0.903385 12.8361  255 255 255
0.421923 -1.63432 26.8507  255 255 255
58.2115 -0.690234 9.4173  255 255 255
51.0788 0.595468 -6.14923  255 255 255
54.3223 0.0388623 0.915618  255 255 255
64.4317 -1.88502 22.9752  255 255 255
0.0277253 -1.74627 27.2883  255 255 255
62.8642 -1.68003 19.7259  255 255 255
62.8597 -1.67384 19.7117  255 255 255
47.3617 0.96891 -13.1353  255 255 255
-70.0538 4.29159 -33.0362  255 255 255
64.1688 -2.18624 21.9548  255 255 255
-70.4677 4.12695 -33.444  255 255 255
55.9684 -0.923398 4.5243  255 255 255
64.9272 -2.52146 23.9244  255 255 255
-15.3303 -1.69119 22.2376  255 255 255
-12.5331 -1.9887 25.8127  255 255 255
57.4691 -1.25594 7.39963  255 255 255
48.2421 0.142823 -12.6189  255 255 255
62.03 -2.26674 18.0743  255 255 255
57.6023 -1.55152 7.45951  255 255 255
57.6148 -1.55672 7.4389  255 255 255
57.7216 -1.62098 7.79736  255 255 255
-10.0091 -2.5194 28.1567  255 255 255
61.9528 -2.48637 17.9598  255 255 255
48.2172 -0.133297 -12.9213  255 255 255
58.5368 -1.91607 9.4294  255 255 255
-70.1404 2.98322 -30.9358  255 255 255
60.7588 -2.33232 14.3192  255 255 255
58.3038 -1.96079 8.63578  255 255 255
59.2587 -2.12206 10.9545  255 255 255
59.4809 -2.09393 10.5231  255 255 255
60.8895 -2.59381 15.8681  255 255 255
-12.068 -2.75885 26.9594  255 255 255
58.079 -2.08796 7.21974  255 255 255
58.079 -2.08796 7.21974  255 255 255
61.0291 -2.59771 14.6423  255 255 255
64.997 -3.3283 23.6835  255 255 255
64.997 -3.3283 23.6835  255 255 255
-67.8809 2.64092 -31.5234  255 255 255
-16.3368 -2.40371 21.7808  255 255 255
-16.3313 -2.4135 21.8352  255 255 255
57.1642 -2.01623 5.75201  255 255 255
63.7996 -3.06019 19.6038  255 255 255
59.7045 -2.48089 11.7776  255 255 255
57.9744 -2.24781 7.97733  255 255 255
-74.8265 2.47989 -30.2402  255 255 255
62.3776 -3.1623 17.8395  255 255 255
-40.7608 1.58891 -31.283  255 255 255
-11.0717 -3.32253 28.1656  255 255 255
-11.0717 -3.32253 28.1656  255 255 255
62.2665 -3.21421 16.6359  255 255 255
64.8008 -3.76799 22.4923  255 255 255
53.8395 -2.11925 -1.05027  255 255 255
61.2976 -3.25639 14.8212  255 255 255
57.6473 -2.7707 6.74769  255 255 255
50.2145 -1.75833 -9.34473  255 255 255
54.9613 -2.51088 1.3233  255 255 255
63.3932 -3.79865 18.9099  255 255 255
63.7012 -3.90935 19.8966  255 255 255
63.6955 -3.8956 19.8624  255 255 255
55.0054 -2.67522 0.782527  255 255 255
55.0054 -2.67522 0.782527  255 255 255
55.5438 -2.7787 2.32401  255 255 255
59.5157 -3.44508 10.8224  255 255 255
54.78 -2.78416 0.529743  255 255 255
8.65401 -4.34218 29.396  255 255 255
57.2471 -3.28334 5.36771  255 255 255
63.3654 -4.20131 18.9959  255 255 255
61.7175 -3.99121 15.1752  255 255 255
-19.6297 -2.99655 12.749  255 255 255
58.1198 -3.50156 7.5419  255 255 255
65.5809 -4.82008 24.1115  255 255 255
58.6402 -3.8859 8.65164  255 255 255
54.821 -3.34066 -0.116122  255 255 255
61.9035 -4.33654 15.8804  255 255 255
59.9564 -4.12236 11.305  255 255 255
61.546 -4.30487 14.5833  255 255 255
61.546 -4.30487 14.5833  255 255 255
64.2388 -4.77182 20.7828  255 255 255
-45.2559 -0.601491 -29.0117  255 255 255
58.3895 -4.19257 8.05009  255 255 255
63.0324 -4.82052 17.5051  255 255 255
-23.4511 -3.34079 8.84173  255 255 255
-23.4535 -3.33726 8.86609  255 255 255
55.967 -3.92316 2.3015  255 255 255
61.5693 -4.74499 14.6946  255 255 255
61.5693 -4.74499 14.6946  255 255 255
55.0095 -3.92737 0.0873367  255 255 255
54.5679 -3.92623 -1.29019  255 255 255
59.5593 -4.54547 10.0223  255 255 255
63.5104 -5.11337 18.9955  255 255 255
61.3706 -4.89479 14.1299  255 255 255
59.2859 -4.59524 9.32958  255 255 255
-48.4948 -1.3416 -27.6433  255 255 255
-8.64428 -5.31271 30.8862  255 255 255
-8.64428 -5.31271 30.8862  255 255 255
54.5006 -4.33138 -1.26672  255 255 255
-23.7744 -4.00279 9.61747  255 255 255
64.7359 -5.65625 21.2505  255 255 255
55.1115 -4.82401 -0.261791  255 255 255
65.8864 -6.11148 23.8957  255 255 255
-17.3269 -5.22787 24.0264  255 255 255
59.9843 -5.43502 10.0475  255 255 255
59.6827 -5.44329 9.45009  255 255 255
61.3175 -5.66343 13.2091  255 255 255
64.3823 -6.20696 20.2866  255 255 255
42.8405 -3.65302 -31.6192  255 255 255
60.1399 -5.7285 10.5405  255 255 255
55.2117 -5.25877 -0.355987  255 255 255
61.4158 -6.01312 13.2754  255 255 255
62.5961 -6.29034 15.3515  255 255 255
64.9985 -6.6427 21.5101  255 255 255
49.0671 -4.87404 -13.5518  255 255 255
55.5826 -5.58734 0.155187  255 255 255
55.5691 -5.58815 0.183519  255 255 255
-10.8935 -6.30526 30.6311  255 255 255
-10.8946 -6.321 30.6443  255 255 255
-14.4374 -6.16 28.0578  255 255 255
52.4851 -5.45088 -6.68449  255 255 255
60.222 -6.25373 10.4393  255 255 255
60.2153 -6.25529 10.4604  255 255 255
60.3574 -6.38805 9.25657  255 255 255
-6.8093 -6.76437 32.6936  255 255 255
56.7312 -6.10231 2.7552  255 255 255
48.8808 -5.37633 -15.5802  255 255 255
-70.6564 -3.07477 -24.7645  255 255 255
-8.09635 -6.75524 32.3149  255 255 255
52.8908 -5.83128 -6.49229  255 255 255
61.102 -6.81081 11.8903  255 255 255
6.37338 -7.14887 32.0754  255 255 255
56.8682 -6.43332 2.73222  255 255 255
64.0668 -7.1888 18.8208  255 255 255
-24.1497 -5.91633 11.7665  255 255 255
-7.06018 -7.05138 32.9228  255 255 255
-6.55401 -7.13346 33.0353  255 255 255
58.9316 -6.86375 7.14329  255 255 255
60.6212 -7.02671 10.2692  255 255 255
60.4188 -7.02181 10.6335  255 255 255
-6.98604 -7.28722 33.0884  255 255 255
60.3471 -7.12903 10.1869  255 255 255
60.3471 -7.12903 10.1869  255 255 255
60.9479 -7.31526 11.7758  255 255 255
-1.67597 -7.6172 33.8008  255 255 255
-16.3228 -7.14273 26.9373  255 255 255
-8.29504 -7.50293 32.6863  255 255 255
63.6885 -7.78406 17.5254  255 255 255
-20.9398 -6.77354 17.3622  255 255 255
53.9675 -6.8816 -4.17097  255 255 255
62.2698 -7.77536 14.1536  255 255 255
-8.69169 -7.63135 32.4928  255 255 255
61.1198 -7.74205 11.858  255 255 255
61.0756 -7.77242 11.9225  255 255 255
47.5269 -6.61618 -19.0012  255 255 255
61.8937 -7.92254 12.9298  255 255 255
5.6958 -8.06737 32.9212  255 255 255
-59.9399 -5.03975 -23.4562  255 255 255
-59.9399 -5.03975 -23.4562  255 255 255
64.9567 -8.3553 20.0838  255 255 255
-42.357 -5.45583 -23.4919  255 255 255
52.3533 -7.35912 -8.48751  255 255 255
58.347 -7.8311 4.94468  255 255 255
61.2803 -8.24668 12.0101  255 255 255
61.5914 -8.24789 12.311  255 255 255
63.6017 -8.49953 16.8089  255 255 255
47.3813 -7.28573 -19.8694  255 255 255
-0.983527 -8.43041 34.5481  255 255 255
47.0811 -7.39318 -20.1092  255 255 255
57.2004 -8.14533 2.78092  255 255 255
-46.9874 -5.99369 -22.276  255 255 255
57.6258 -8.25338 3.12016  255 255 255
-43.2585 -6.10166 -21.99  255 255 255
-43.2585 -6.10166 -21.99  255 255 255
66.036 -9.05059 22.5206  255 255 255
58.6612 -8.5215 5.32631  255 255 255
66.3979 -9.12295 22.9498  255 255 255
-1.92467 -8.72839 34.5541  255 255 255
56.7204 -8.55168 0.676039  255 255 255
5.05459 -8.87664 33.5412  255 255 255
58.5395 -8.75402 5.13501  255 255 255
65.534 -9.29352 21.0505  255 255 255
-68.7997 -6.20729 -20.7756  255 255 255
-3.7214 -8.96712 34.5694  255 255 255
57.3429 -8.95784 2.13712  255 255 255
48.5611 -8.39613 -17.666  255 255 255
49.4616 -8.58938 -15.0084  255 255 255
62.7161 -9.39033 13.1027  255 255 255
62.4358 -9.41484 13.6535  255 255 255
58.5459 -9.16748 3.85396  255 255 255
58.5345 -9.16668 3.8772  255 255 255
45.9103 -8.46314 -24.3349  255 255 255
-26.0323 -8.37275 14.4788  255 255 255
63.0839 -9.63625 13.1055  255 255 255
56.7326 -9.37947 0.369386  255 255 255
56.7385 -9.36882 0.345153  255 255 255
56.7487 -9.37083 0.347211  255 255 255
59.4732 -9.55963 6.79033  255 255 255
-5.44935 -9.49894 34.3535  255 255 255
57.7781 -9.62027 2.50543  255 255 255
58.5885 -9.71348 4.41805  255 255 255
58.5389 -9.73245 4.4918  255 255 255
58.5704 -9.71371 4.45977  255 255 255
-41.6603 -7.84695 -20.6041  255 255 255
62.8912 -10.1833 14.5829  255 255 255
59.2601 -10.0107 5.44397  255 255 255
63.5176 -10.2276 15.7262  255 255 255
63.5176 -10.2276 15.7262  255 255 255
63.067 -10.2806 15.2576  255 255 255
59.9406 -10.2576 7.12702  255 255 255
63.5055 -10.6709 15.3577  255 255 255
59.7866 -10.4873 3.76538  255 255 255
59.4618 -10.5563 4.53065  255 255 255
57.7436 -10.5494 1.58355  255 255 255
57.6936 -10.5553 1.66864  255 255 255
59.9463 -10.7111 7.21507  255 255 255
-17.2927 -10.0217 27.1231  255 255 255
-6.84198 -10.2728 34.3705  255 255 255
60.2454 -10.7567 7.30394  255 255 255
60.2065 -10.7555 7.3725  255 255 255
63.5125 -10.9267 15.2874  255 255 255
48.1599 -10.3639 -20.4309  255 255 255
-68.7411 -8.64479 -18.4436  255 255 255
-68.7489 -8.64903 -18.4677  255 255 255
-5.14903 -10.4206 34.8521  255 255 255
-5.1472 -10.4207 34.834  255 255 255
46.9523 -10.3756 -23.6741  255 255 255
59.2558 -10.8917 5.30534  255 255 255
59.2733 -10.8949 5.28059  255 255 255
-18.2881 -10.2286 25.9976  255 255 255
48.8664 -10.6459 -17.9505  255 255 255
56.426 -10.9763 -0.790189  255 255 255
60.4674 -11.0601 7.63517  255 255 255
-15.3592 -10.5044 29.4448  255 255 255
56.5687 -11.124 -1.55435  255 255 255
-2.75634 -10.8232 35.3426  255 255 255
52.3056 -11.101 -10.9621  255 255 255
-3.33751 -10.8487 35.3173  255 255 255
64.0181 -11.5541 15.949  255 255 255
64.0181 -11.5541 15.949  255 255 255
48.1905 -11.0362 -20.1172  255 255 255
56.4495 -11.2212 -2.21414  255 255 255
61.9171 -11.4873 10.7965  255 255 255
63.9196 -11.6178 15.4276  255 255 255
61.0185 -11.5204 8.57273  255 255 255
66.7149 -11.732 22.1201  255 255 255
57.5395 -11.4643 0.504475  255 255 255
-11.4937 -10.8673 32.502  255 255 255
59.4428 -11.569 5.07725  255 255 255
59.3885 -11.5751 5.1647  255 255 255
59.8727 -11.5987 6.08284  255 255 255
-2.18977 -11.0472 35.4132  255 255 255
56.326 -11.6167 -2.37302  255 255 255
61.4375 -11.7559 9.61337  255 255 255
61.8708 -11.8122 10.9362  255 255 255
61.9887 -11.7709 10.8177  255 255 255
60.3613 -11.7688 6.96761  255 255 255
56.4308 -11.6749 -2.00218  255 255 255
57.5791 -11.7551 0.647062  255 255 255
61.4964 -11.9903 10.0291  255 255 255
-19.0032 -10.9862 25.0268  255 255 255
47.6939 -11.6507 -21.5384  255 255 255
-10.3363 -11.247 33.2551  255 255 255
1.70459 -11.4853 35.3273  255 255 255
1.70459 -11.4853 35.3273  255 255 255
48.5475 -11.953 -20.7369  255 255 255
-56.065 -10.4411 -16.8901  255 255 255
-56.065 -10.4411 -16.8901  255 255 255
60.7135 -12.3405 8.06063  255 255 255
60.7402 -12.3287 7.99284  255 255 255
61.3606 -12.3115 7.59876  255 255 255
59.4738 -12.3983 4.24931  255 255 255
-50.0822 -10.7874 -16.6038  255 255 255
-21.5778 -11.3468 22.5785  255 255 255
-16.352 -11.4621 28.7473  255 255 255
59.1917 -12.5182 4.1842  255 255 255
59.1642 -12.4873 4.17386  255 255 255
64.9171 -12.5392 17.4977  255 255 255
-5.41158 -11.6604 35.1902  255 255 255
57.2499 -12.7111 -1.11689  255 255 255
-3.96134 -11.9875 35.4831  255 255 255
59.115 -12.8208 3.12101  255 255 255
59.4899 -12.8201 4.06471  255 255 255
64.5413 -12.9103 16.0485  255 255 255
56.4603 -12.853 -2.62484  255 255 255
-21.0281 -11.8474 23.3049  255 255 255
60.5867 -13.0761 6.44511  255 255 255
61.5233 -13.0404 8.89249  255 255 255
0.921042 -12.2521 35.6009  255 255 255
61.0673 -13.1173 8.0076  255 255 255
59.0365 -13.2404 2.87533  255 255 255
59.0365 -13.2404 2.87533  255 255 255
-7.06862 -12.2776 34.9798  255 255 255
-81.7757 -11.2329 -14.5418  255 255 255
-14.3075 -12.2784 30.879  255 255 255
13.8457 -12.6774 29.5087  255 255 255
65.4248 -13.4228 18.0425  255 255 255
65.3994 -13.4255 18.0916  255 255 255
57.751 -13.4846 -0.47638  255 255 255
57.7251 -13.4808 -0.429199  255 255 255
65.2267 -13.4767 17.8883  255 255 255
-48.8831 -12.0025 -15.7846  255 255 255
-48.8831 -12.0025 -15.7846  255 255 255
3.12845 -12.5807 35.3496  255 255 255
60.7581 -13.4795 7.62195  255 255 255
63.0583 -13.5323 12.4221  255 255 255
60.7894 -13.5433 6.90812  255 255 255
61.5964 -13.5771 8.88033  255 255 255
-7.21301 -12.5145 34.8284  255 255 255
56.2505 -13.5993 -3.91864  255 255 255
-48.8641 -12.1805 -14.2411  255 255 255
-54.3431 -12.1832 -14.7777  255 255 255
-54.3431 -12.1832 -14.7777  255 255 255
-50.0283 -12.3074 -15.1086  255 255 255
-48.3549 -12.2956 -14.7833  255 255 255
49.8724 -13.8057 -18.7716  255 255 255
59.8434 -13.7849 4.25399  255 255 255
61.8742 -13.8592 8.96688  255 255 255
-2.11018 -12.9172 35.8277  255 255 255
7.06464 -13.101 34.0395  255 255 255
24.8969 -13.542 16.2466  255 255 255
24.8969 -13.542 16.2466  255 255 255
55.9559 -14.225 -4.56836  255 255 255
50.6714 -14.2756 -16.0704  255 255 255
65.9721 -14.163 18.9456  255 255 255
65.994 -14.1606 18.9601  255 255 255
65.8646 -14.2428 18.6394  255 255 255
59.9051 -14.3513 3.83612  255 255 255
59.0704 -14.373 1.92983  255 255 255
58.268 -14.4994 0.303155  255 255 255
60.7294 -14.6635 5.83873  255 255 255
60.6572 -14.6879 5.91241  255 255 255
61.6989 -14.6904 8.38844  255 255 255
-52.6708 -13.4222 -13.7813  255 255 255
58.3358 -14.9434 -0.951667  255 255 255
60.6623 -15.1973 5.57014  255 255 255
56.9098 -15.4256 -3.81207  255 255 255
61.3912 -15.3825 6.75129  255 255 255
60.6765 -15.5161 5.68031  255 255 255
59.1574 -15.6065 1.31939  255 255 255
59.1699 -15.6051 1.29448  255 255 255
60.5989 -15.544 5.25947  255 255 255
60.5989 -15.544 5.25947  255 255 255
2.38961 -14.2107 35.6688  255 255 255
-9.17567 -14.0853 34.4476  255 255 255
12.9057 -14.5724 30.7606  255 255 255
56.9208 -16.0266 -2.83944  255 255 255
66.1228 -15.7745 18.2093  255 255 255
25.497 -15.2371 18.1357  255 255 255
-17.4059 -14.436 28.1588  255 255 255
-4.40675 -14.4344 35.8608  255 255 255
-4.37507 -14.4605 35.8278  255 255 255
57.2157 -16.1855 -3.82707  255 255 255
-4.07855 -14.545 35.8721  255 255 255
60.6699 -16.2552 5.87877  255 255 255
60.7714 -16.3123 4.92952  255 255 255
60.7714 -16.3123 4.92952  255 255 255
67.3096 -16.0615 20.667  255 255 255
-55.8985 -15.0214 -11.7751  255 255 255
-8.00489 -14.6199 34.833  255 255 255
59.9631 -16.7505 2.6126  255 255 255
-54.7183 -15.6944 -11.02  255 255 255
61.4503 -17.2596 5.59672  255 255 255
-8.38076 -15.404 34.8203  255 255 255
-7.79074 -15.4161 35.0479  255 255 255
6.19277 -15.6118 34.8352  255 255 255
59.9767 -17.4456 2.48822  255 255 255
57.9573 -17.6183 -2.64777  255 255 255
59.6746 -17.501 1.47245  255 255 255
59.7518 -17.4882 1.40611  255 255 255
-21.3352 -15.516 27.1959  255 255 255
60.7561 -17.675 3.61948  255 255 255
60.7428 -17.6789 3.64147  255 255 255
63.4424 -17.5124 10.7944  255 255 255
-21.1612 -15.7465 27.4764  255 255 255
58.4579 -17.9424 -1.83179  255 255 255
63.6191 -17.5881 11.1979  255 255 255
-13.8473 -15.7491 31.7548  255 255 255
5.26491 -15.9241 34.9597  255 255 255
60.1583 -17.878 2.14652  255 255 255
61.4205 -17.8274 5.36457  255 255 255
63.3259 -17.7529 9.75386  255 255 255
63.3656 -17.7499 9.73179  255 255 255
63.9637 -17.6943 11.4819  255 255 255
60.3192 -18.0771 2.67966  255 255 255
55.6233 -18.4507 -7.41359  255 255 255
66.2765 -17.7215 17.6953  255 255 255
66.2765 -17.7215 17.6953  255 255 255
-21.2322 -16.0416 27.5111  255 255 255
6.69851 -16.2164 34.4978  255 255 255
10.5107 -16.3976 31.4595  255 255 255
61.1165 -18.2545 4.35572  255 255 255
63.797 -17.9741 11.4853  255 255 255
6.81186 -16.3631 34.5196  255 255 255
62.5776 -18.2103 7.47123  255 255 255
60.6811 -18.4276 2.95871  255 255 255
-21.0378 -16.3287 27.8809  255 255 255
58.2683 -18.7613 -2.1537  255 255 255
58.3719 -18.96 -2.65331  255 255 255
62.8024 -18.6623 6.70202  255 255 255
-28.6137 -16.6773 24.4214  255 255 255
67.6887 -18.3801 20.6131  255 255 255
11.756 -17.0414 31.7096  255 255 255
6.89655 -16.9132 34.4448  255 255 255
60.1114 -19.1369 0.703108  255 255 255
66.137 -18.6276 16.537  255 255 255
67.401 -18.5188 19.6499  255 255 255
-3.7083 -16.765 36.0037  255 255 255
7.02514 -17.0841 34.3979  255 255 255
66.0266 -18.939 16.0134  255 255 255
6.85732 -17.1331 34.4696  255 255 255
6.85732 -17.1331 34.4696  255 255 255
-27.4077 -17.1525 25.2674  255 255 255
3.26441 -17.2276 35.6491  255 255 255
59.7431 -19.7469 -0.144575  255 255 255
-48.3916 -18.4891 -8.29108  255 255 255
66.1451 -19.2501 15.7932  255 255 255
-11.8697 -17.1521 32.9911  255 255 255
54.8409 -20.6001 -12.0939  255 255 255
54.7785 -20.5925 -12.0361  255 255 255
61.0856 -19.999 2.857  255 255 255
-3.48116 -17.4378 36.0155  255 255 255
59.0677 -20.3282 -2.5842  255 255 255
-20.2144 -17.5544 29.2542  255 255 255
-15.1237 -17.5772 30.7741  255 255 255
18.732 -18.3329 26.9231  255 255 255
66.2342 -19.8222 15.6033  255 255 255
65.6195 -19.7769 16.7194  255 255 255
-28.793 -17.8795 24.6688  255 255 255
58.9373 -20.6794 -2.25261  255 255 255
59.171 -20.6641 -2.59707  255 255 255
16.0763 -18.5252 27.5325  255 255 255
-53.6697 -19.3473 -6.88884  255 255 255
-51.7088 -19.39 -7.22958  255 255 255
64.8217 -20.3069 11.7897  255 255 255
17.3368 -18.7532 27.5311  255 255 255
1.05773 -18.0982 35.9152  255 255 255
60.254 -20.9891 1.29352  255 255 255
67.1269 -20.2837 18.9707  255 255 255
-27.0205 -18.3221 26.4678  255 255 255
64.5263 -20.7422 10.8387  255 255 255
-13.2257 -18.3874 32.1539  255 255 255
-13.2392 -18.3945 32.175  255 255 255
61.0271 -21.263 2.09997  255 255 255
61.0226 -21.2608 2.15261  255 255 255
-27.1802 -18.5506 26.1453  255 255 255
60.4386 -21.4373 0.622839  255 255 255
-13.7697 -18.5435 31.6735  255 255 255
61.2742 -21.5913 1.46262  255 255 255
61.1929 -21.5778 1.61705  255 255 255
61.132 -21.5515 1.74713  255 255 255
60.8038 -21.9241 1.32028  255 255 255
-12.4673 -18.9054 32.506  255 255 255
-12.9246 -19.1977 32.1739  255 255 255
59.1185 -22.6937 -3.8156  255 255 255
11.7072 -19.7109 30.6258  255 255 255
63.8389 -22.0615 9.24471  255 255 255
3.50355 -19.4257 35.2221  255 255 255
23.6118 -20.5496 24.467  255 255 255
-26.0599 -19.6024 27.8076  255 255 255
60.3691 -22.9292 -0.440381  255 255 255
-4.87238 -19.4536 35.6535  255 255 255
-57.6268 -21.5788 -4.34129  255 255 255
61.3806 -23.0703 1.08513  255 255 255
-26.9755 -20.117 25.4701  255 255 255
64.1819 -22.9823 8.9293  255 255 255
62.9661 -23.2962 5.28937  255 255 255
-8.83874 -20.103 34.3126  255 255 255
-8.87685 -20.0679 34.3389  255 255 255
8.70732 -20.4073 34.1356  255 255 255
57.5184 -24.2819 -7.08201  255 255 255
-19.0236 -20.3031 30.9066  255 255 255
-7.30975 -20.3109 34.7829  255 255 255
-56.4914 -22.6376 -3.2799  255 255 255
-56.4914 -22.6376 -3.2799  255 255 255
-24.7239 -20.6876 29.0085  255 255 255
58.5862 -24.7704 -5.84432  255 255 255
-3.67504 -20.5877 35.4549  255 255 255
2.56718 -20.6781 35.1472  255 255 255
60.4618 -24.4999 -0.97677  255 255 255
0.679062 -20.8837 35.3915  255 255 255
-17.1539 -20.9209 32.3178  255 255 255
20.0866 -21.9508 26.3903  255 255 255
-14.1216 -20.9789 33.2161  255 255 255
-14.117 -20.992 33.2289  255 255 255
66.3422 -23.9188 14.4235  255 255 255
-16.9196 -21.058 32.4715  255 255 255
0.316858 -21.1892 35.2952  255 255 255
58.9971 -25.5836 -5.9232  255 255 255
58.865 -25.5491 -5.19794  255 255 255
-23.628 -21.3627 29.674  255 255 255
-26.4781 -21.7548 25.27  255 255 255
20.1154 -22.3394 26.9609  255 255 255
60.4114 -25.5501 -1.88687  255 255 255
23.7184 -22.5886 26.6522  255 255 255
67.0703 -24.7401 14.2572  255 255 255
-24.167 -21.8653 30.4138  255 255 255
13.3738 -22.3653 31.9124  255 255 255
-1.10432 -21.8368 35.2195  255 255 255
-15.7496 -21.8602 33.1328  255 255 255
-15.7497 -21.8652 33.1467  255 255 255
6.91883 -22.1816 33.397  255 255 255
-11.0845 -21.9752 34.1725  255 255 255
-14.4865 -21.989 34.2265  255 255 255
61.0814 -26.5939 -1.3323  255 255 255
62.6083 -26.4812 2.5078  255 255 255
62.995 -26.497 2.12737  255 255 255
2.47293 -22.471 34.6  255 255 255
-15.7976 -22.3859 32.9464  255 255 255
16.1009 -23.1779 29.7484  255 255 255
67.4489 -25.5742 16.3969  255 255 255
65.6456 -24.8559 24.0368  255 255 255
-6.30565 -22.6093 34.4934  255 255 255
-22.2977 -22.8297 30.9871  255 255 255
-13.1944 -22.729 34.8582  255 255 255
-13.1944 -22.729 34.8582  255 255 255
21.7761 -23.9788 28.6296  255 255 255
-21.4306 -23.1023 31.4697  255 255 255
-21.2038 -23.185 31.2455  255 255 255
5.70056 -23.3727 33.967  255 255 255
63.6374 -27.4364 4.04267  255 255 255
-43.1719 -26.1645 0.00449157  255 255 255
66.6664 -26.9556 11.9123  255 255 255
-54.6176 -26.2451 0.853149  255 255 255
-24.2316 -23.4587 31.8974  255 255 255
62.3663 -28.1152 1.97726  255 255 255
21.7759 -24.6112 29.0833  255 255 255
-0.1921 -23.6631 34.8544  255 255 255
66.0117 -26.3671 22.8538  255 255 255
66.0512 -26.2065 23.2204  255 255 255
64.4253 -28.1732 5.85483  255 255 255
-18.2475 -23.9156 32.0168  255 255 255
-6.20656 -23.7171 35.5997  255 255 255
63.8743 -28.6634 3.80087  255 255 255
19.5347 -25.0364 29.9835  255 255 255
-21.8406 -24.3064 32.8184  255 255 255
-12.3349 -24.1618 35.1205  255 255 255
-12.3273 -24.1609 35.1032  255 255 255
61.4835 -29.5938 -2.4186  255 255 255
67.1572 -27.9945 14.1094  255 255 255
63.343 -29.3487 2.28639  255 255 255
2.70014 -24.5291 35.6138  255 255 255
-13.9799 -24.5672 33.7273  255 255 255
67.4132 -28.5308 12.3142  255 255 255
-20.3163 -24.7014 33.1809  255 255 255
-2.85882 -24.6839 36.3722  255 255 255
67.4021 -28.8929 12.1335  255 255 255
41.9954 -29.8893 -2.14659  255 255 255
-43.3622 -28.0876 2.46331  255 255 255
-44.6615 -28.3951 2.18578  255 255 255
-20.5454 -25.1453 33.5608  255 255 255
63.5817 -30.061 4.63363  255 255 255
64.3729 -30.2134 3.42462  255 255 255
-21.5516 -25.6116 31.9038  255 255 255
-21.2676 -25.6011 32.2594  255 255 255
-9.00068 -25.3612 35.6553  255 255 255
62.865 -31.1342 -0.239813  255 255 255
66.192 -29.9757 10.3141  255 255 255
69.386 -29.2707 16.8133  255 255 255
69.7261 -29.3344 16.8042  255 255 255
68.411 -29.3542 16.7194  255 255 255
-5.84786 -25.5173 36.5941  255 255 255
68.3314 -29.8625 13.2596  255 255 255
-18.4151 -25.7029 34.2764  255 255 255
-8.92738 -25.7463 35.4972  255 255 255
67.0421 -30.3853 9.89863  255 255 255
65.3449 -31.1359 5.16821  255 255 255
63.3902 -31.8317 0.216454  255 255 255
-9.71994 -26.0812 35.1229  255 255 255
63.2884 -32.1014 0.481771  255 255 255
4.14003 -26.4125 36.0996  255 255 255
4.30687 -26.5729 36.0346  255 255 255
68.4408 -30.7803 14.6341  255 255 255
68.4408 -30.7803 14.6341  255 255 255
69.451 -31.036 15.1518  255 255 255
63.8056 -32.9037 0.801829  255 255 255
14.0467 -27.5895 33.7218  255 255 255
69.4264 -31.3533 15.3485  255 255 255
17.2989 -27.7759 33.1659  255 255 255
69.4044 -31.3906 14.9658  255 255 255
-26.3837 -28.7208 22.441  255 255 255
-2.11758 -27.2381 36.0487  255 255 255
66.4232 -32.5842 7.10968  255 255 255
-6.2461 -27.3226 35.6638  255 255 255
66.4353 -32.7017 7.55762  255 255 255
70.0002 -32.0552 15.2259  255 255 255
67.3563 -32.9876 9.8429  255 255 255
16.9832 -28.4479 34.2378  255 255 255
68.0538 -33.0062 10.7823  255 255 255
69.9315 -32.454 14.9839  255 255 255
69.7898 -32.4252 15.2118  255 255 255
15.5822 -28.8043 34.4421  255 255 255
-0.692308 -28.3344 35.6646  255 255 255
67.7317 -33.5332 10.0293  255 255 255
-11.2603 -28.277 36.6283  255 255 255
8.75601 -28.8852 35.4135  255 255 255
68.724 -33.6351 12.2369  255 255 255
14.4697 -29.1688 34.6648  255 255 255
10.3057 -29.0385 35.2042  255 255 255
-11.1838 -28.6668 36.5149  255 255 255
65.5197 -35.0347 5.68529  255 255 255
13.857 -29.6762 34.7863  255 255 255
65.5183 -35.3704 5.44269  255 255 255
67.8571 -34.3967 12.4437  255 255 255
-23.4046 -30.5101 26.04  255 255 255
-23.3991 -30.4845 26.0709  255 255 255
-10.7375 -28.9589 37.1451  255 255 255
-5.57818 -29.109 36.8376  255 255 255
14.458 -29.9099 34.0095  255 255 255
-11.2443 -29.0307 37.2802  255 255 255
-46.1764 -33.3609 7.1347  255 255 255
-52.3125 -33.2416 8.62618  255 255 255
-10.7025 -29.1633 37.3933  255 255 255
66.6371 -35.8991 5.74893  255 255 255
70.2494 -34.6296 14.4819  255 255 255
66.5455 -36.0726 5.44867  255 255 255
-13.0426 -29.4686 36.9556  255 255 255
10.7981 -30.0976 36.3601  255 255 255
66.5952 -36.3301 5.29746  255 255 255
69.328 -35.5034 11.8546  255 255 255
4.74765 -30.0321 36.9445  255 255 255
-13.6435 -29.8548 36.4184  255 255 255
9.79295 -30.1599 36.7483  255 255 255
-46.6813 -34.2617 9.07799  255 255 255
-46.6813 -34.2617 9.07799  255 255 255
69.4462 -35.7904 12.7106  255 255 255
-4.98784 -30.1079 37.9991  255 255 255
-4.98784 -30.1079 37.9991  255 255 255
-12.9193 -30.3747 36.2971  255 255 255
66.6721 -37.4692 4.93129  255 255 255
3.41981 -30.5884 37.7279  255 255 255
-3.0147 -30.6246 38.3267  255 255 255
-45.918 -35.0933 10.3027  255 255 255
-0.64072 -30.8461 38.5314  255 255 255
5.82198 -31.0742 37.9775  255 255 255
2.20696 -31.2439 38.6095  255 255 255
-1.38866 -31.2527 38.9159  255 255 255
2.33321 -31.4726 38.5115  255 255 255
-23.9642 -33.7999 23.1633  255 255 255
11.3645 -32.6871 33.547  255 255 255
2.74463 -31.7654 38.2085  255 255 255
-12.3179 -32.1566 34.9565  255 255 255
10.8379 -32.7061 34.0687  255 255 255
15.4823 -33.6118 29.8809  255 255 255
-0.98875 -32.1519 38.2483  255 255 255
-13.5716 -32.8369 33.8147  255 255 255
2.11356 -32.4111 37.6318  255 255 255
-9.74765 -33.055 35.3373  255 255 255
-22.3194 -35.0402 23.6771  255 255 255
0.127111 -33.462 36.8256  255 255 255
5.80496 -33.8628 36.3049  255 255 255
0.201356 -34.2046 36.3099  255 255 255
43.9572 -40.5233 9.87881  255 255 255
47.3612 -40.6187 9.93997  255 255 255
44.3831 -40.6113 9.94583  255 255 255
41.9976 -40.9385 10.6214  255 255 255
5.36237 -35.2584 34.8116  255 255 255
-10.8597 -35.9491 32.3084  255 255 255
-69.3064 -39.1477 16.906  255 255 255
10.7746 -37.2918 29.5997  255 255 255
3.98131 -36.5385 33.8477  255 255 255
9.92919 -39.2083 29.095  255 255 255
63.2183 -44.0616 13.861  255 255 255
9.36808 -39.6019 28.7489  255 255 255
-1.84357 -39.063 32.1916  255 255 255
61.0763 -44.6958 14.8857  255 255 255
-16.1222 -39.7644 28.5543  255 255 255
-13.7978 -40.026 28.1255  255 255 255
-14.0397 -40.191 28.0086  255 255 255
1.08562 -40.0421 31.6026  255 255 255
51.678 -45.2273 15.7691  255 255 255
49.98 -46.9089 18.5721  255 255 255
60.3601 -47.9081 18.5055  255 255 255
60.3601 -47.9081 18.5055  255 255 255
-5.46215 -43.578 30.4445  255 255 255
54.7555 -49.2247 20.3846  255 255 255
-17.8681 -46.1134 27.347  255 255 255
29.7382 -49.5721 21.0744  255 255 255
-37.3406 -47.9256 24.0527  255 255 255
-34.8867 -47.9391 24.458  255 255 255
17.1603 -48.5579 25.0105  255 255 255
-5.63421 -47.2363 31.8451  255 255 255
64.95 -51.6544 23.4912  255 255 255
54.7592 -51.5148 23.3825  255 255 255
30.0448 -51.1773 23.0312  255 255 255
56.9075 -51.7889 23.7602  255 255 255
58.3195 -51.8916 23.5513  255 255 255
-12.3946 -49.2416 27.7198  255 255 255
29.3058 -51.5253 23.4625  255 255 255
29.3058 -51.5253 23.4625  255 255 255
-30.7805 -49.8071 25.9509  255 255 255
61.7754 -53.1846 25.1065  255 255 255
25.9907 -52.4332 24.8179  255 255 255
25.5904 -52.5807 24.9568  255 255 255
26.0141 -53.2751 25.8798  255 255 255
25.5124 -53.2927 26.359  255 255 255
25.6356 -53.4639 25.9417  255 255 255
-27.4646 -52.1604 28.6184  255 255 255
-29.4637 -52.3384 28.9138  255 255 255
56.4049 -55.0226 27.3839  255 255 255
28.9241 -54.2566 27.4347  255 255 255
-38.4336 -53.2467 29.8075  255 255 255
-23.825 -53.3481 29.7422  255 255 255
-37.1055 -53.2691 30.2916  255 255 255
50.4968 -55.5517 28.7003  255 255 255
-33.2935 -53.5397 30.3346  255 255 255
-25.4972 -53.8781 30.2665  255 255 255
23.46 -55.6394 28.6692  255 255 255
50.5236 -56.4064 28.935  255 255 255
-28.7789 -54.2919 30.9264  255 255 255
23.2005 -55.9551 29.0576  255 255 255
-35.6241 -54.4269 31.2147  255 255 255
48.0958 -57.007 28.7277  255 255 255
-22.9789 -54.7609 31.3318  255 255 255
23.6367 -56.2031 30.262  255 255 255
31.0866 -57.0887 30.2846  255 255 255
-39.2371 -55.2428 32.617  255 255 255
-27.9966 -55.4895 32.2018  255 255 255
-15.5426 -55.9165 32.0991  255 255 255
32.3864 -57.8332 30.4994  255 255 255
51.0804 -58.3088 31.5474  255 255 255
-28.7872 -56.333 33.7152  255 255 255
56.6469 -58.8516 32.1985  255 255 255
-23.8025 -56.6621 33.2763  255 255 255
-49.9806 -56.6077 34.4013  255 255 255
-20.0993 -56.9075 33.2604  255 255 255
17.5947 -58.1189 31.9772  255 255 255
-22.7493 -57.0614 33.7427  255 255 255
-3.69422 -57.7508 33.0052  255 255 255
-19.0637 -57.4179 33.8023  255 255 255
46.0137 -59.777 32.2339  255 255 255
-7.53221 -57.895 33.6312  255 255 255
17.0815 -58.8118 32.7795  255 255 255
-29.0631 -57.5873 34.3494  255 255 255
15.6342 -58.6267 33.2705  255 255 255
-13.7131 -57.818 33.9051  255 255 255
-7.56718 -58.0861 33.7982  255 255 255
-0.666766 -58.3421 33.6144  255 255 255
-32.8308 -57.5378 35.2193  255 255 255
0.41437 -58.4723 33.48  255 255 255
-18.5021 -57.8519 34.4924  255 255 255
-3.51462 -58.1978 34.1161  255 255 255
14.4494 -59.0143 33.0777  255 255 255
6.95601 -58.7812 33.4603  255 255 255
-10.4627 -58.1984 34.251  255 255 255
40.9595 -59.9485 33.8358  255 255 255
35.0991 -59.9306 33.6305  255 255 255
-9.13149 -58.5873 34.609  255 255 255
-9.12499 -58.6045 34.5658  255 255 255
2.96464 -58.9682 34.8806  255 255 255
23.2297 -59.7419 34.3162  255 255 255
21.3134 -59.6703 34.3932  255 255 255
-9.87143 -58.7955 34.8991  255 255 255
-2.05879 -59.1131 34.4929  255 255 255
7.0754 -59.2874 34.5778  255 255 255
7.15589 -59.4749 34.2073  255 255 255
7.15589 -59.4749 34.2073  255 255 255
-14.1682 -58.7726 35.1052  255 255 255
40.3175 -60.7758 33.7493  255 255 255
-1.07851 -59.3993 34.3455  255 255 255
48.5041 -60.7262 34.5486  255 255 255
-14.3853 -58.9678 35.3303  255 255 255
-3.08777 -59.4558 34.8363  255 255 255
-14.2284 -59.0172 35.6453  255 255 255
-14.232 -59.0913 35.4598  255 255 255
18.1831 -60.4723 35.4684  255 255 255
-7.23338 -59.7508 36.4818  255 255 255
19.7617 -60.9484 35.2838  255 255 255
-7.53149 -60.0668 36.2706  255 255 255
41.6659 -62.0115 35.1024  255 255 255
41.6659 -62.0115 35.1024  255 255 255
-78.2753 53.6076 -10.998  255 255 255
25.8156 74.9506 -74.2097  255 255 255
-72.4103 54.9065 -15.2679  255 255 255
-72.9882 54.4064 -14.7875  255 255 255
48.1249 79.3301 -86.7478  255 255 255
-52.7271 58.3913 -27.7402  255 255 255
-52.741 58.4368 -27.863  255 255 255
-35.6812 61.6735 -38.1505  255 255 255
62.4198 82.1966 -94.7291  255 255 255
62.5225 82.2781 -94.8902  255 255 255
-54.6215 57.861 -26.3044  255 255 255
-67.3516 55.4505 -18.7481  255 255 255
-68.7888 55.1131 -17.924  255 255 255
-68.6669 54.9048 -17.339  255 255 255
-0.585358 68.682 -59.3631  255 255 255
-0.585358 68.682 -59.3631  255 255 255
28.4713 74.8896 -76.5534  255 255 255
-50.5678 58.4877 -29.5053  255 255 255
-42.7216 59.9241 -34.0924  255 255 255
-76.7175 53.029 -12.2876  255 255 255
-36.1322 60.9531 -38.3939  255 255 255
-36.09 60.9061 -38.4507  255 255 255
30.3682 74.6368 -77.6873  255 255 255
-64.3903 55.3679 -21.2499  255 255 255
31.0585 74.5084 -78.4825  255 255 255
-70.9381 53.8861 -17.1345  255 255 255
52.0191 78.6464 -90.0322  255 255 255
58.3706 79.9526 -93.765  255 255 255
61.7957 80.5697 -95.4645  255 255 255
48.8818 77.729 -88.4922  255 255 255
-41.086 59.2441 -36.2225  255 255 255
52.3906 48.9051 -12.0827  255 255 255
-31.4524 60.9937 -42.0395  255 255 255
29.5867 73.3155 -77.7044  255 255 255
27.3297 73.0438 -77.2565  255 255 255
-65.2689 54.409 -21.1888  255 255 255
59.9729 79.3825 -95.2642  255 255 255
-65.6683 54.3379 -21.3343  255 255 255
6.43952 68.2691 -65.0027  255 255 255
-25.448 61.4295 -45.8859  255 255 255
48.0775 51.1992 -20.3432  255 255 255
27.7622 72.3081 -78.0051  255 255 255
26.8383 72.0624 -77.8004  255 255 255
54.9549 46.1988 -7.94732  255 255 255
29.3696 72.1402 -78.8729  255 255 255
23.0834 70.8758 -75.6477  255 255 255
27.5666 71.5204 -77.4035  255 255 255
52.1424 48.1144 -13.3414  255 255 255
59.7974 78.2034 -96.4392  255 255 255
-66.2225 53.2355 -21.3157  255 255 255
-64.9839 53.4902 -22.3068  255 255 255
29.9211 71.9958 -79.813  255 255 255
-64.2944 53.6412 -22.9487  255 255 255
-7.29978 64.383 -57.9564  255 255 255
37.0869 73.4019 -84.1414  255 255 255
-63.9505 53.5302 -23.1005  255 255 255
38.4962 73.2946 -83.8994  255 255 255
38.8757 73.6498 -85.1895  255 255 255
47.8577 50.5977 -21.4511  255 255 255
62.0129 78.2201 -98.2438  255 255 255
68.2755 79.1734 -101.017  255 255 255
-65.2892 52.6762 -21.2813  255 255 255
-82.1989 49.8988 -11.5036  255 255 255
-82.1989 49.8988 -11.5036  255 255 255
-7.06743 63.776 -57.65  255 255 255
23.01 69.9896 -75.753  255 255 255
39.461 73.3635 -85.7326  255 255 255
67.418 79.0275 -101.354  255 255 255
19.2148 69.2552 -74.2118  255 255 255
52.9501 47.1247 -13.1575  255 255 255
-131.695 76.3537 -80.1776  255 255 255
-52.7984 55.1067 -30.4529  255 255 255
-52.6878 54.8833 -29.8335  255 255 255
50.3223 35.9943 17.5928  255 255 255
50.3066 35.9799 17.6073  255 255 255
51.2818 47.7753 -15.5466  255 255 255
-4.44365 64.0077 -59.8899  255 255 255
-4.42472 63.9941 -59.9102  255 255 255
50.0039 48.3395 -18.3013  255 255 255
50.0085 36.273 15.2268  255 255 255
50.3931 36.5059 14.656  255 255 255
50.5856 35.8206 16.3645  255 255 255
-80.3209 49.3868 -13.3452  255 255 255
67.1428 77.0732 -102.352  255 255 255
65.3692 76.5115 -101.302  255 255 255
11.6434 66.1137 -71.4266  255 255 255
50.9205 35.1591 16.3975  255 255 255
50.9353 35.1528 16.383  255 255 255
11.1638 65.7137 -71.4782  255 255 255
31.8558 61.8972 -60.7708  255 255 255
-65.9277 50.9587 -23.4326  255 255 255
66.9369 76.1209 -103.015  255 255 255
-15.6568 60.0265 -55.3738  255 255 255
-66.0084 50.6914 -23.9338  255 255 255
55.3353 43.2563 -9.21338  255 255 255
-82.285 47.61 -13.0614  255 255 255
53.0705 32.3508 21.6174  255 255 255
-77.3458 48.2402 -16.735  255 255 255
63.3406 75.4462 -105.242  255 255 255
-49.6889 52.7015 -35.1225  255 255 255
48.6092 70.9747 -94.6156  255 255 255
54.4371 72.2928 -98.5266  255 255 255
-11.3893 59.162 -59.6577  255 255 255
-11.3944 59.1698 -59.6455  255 255 255
-39.2483 54.0598 -42.1977  255 255 255
-35.3213 54.6646 -44.8622  255 255 255
-35.3469 54.6664 -44.8246  255 255 255
50.8654 33.4072 15.3208  255 255 255
-14.3509 58.0104 -57.9238  255 255 255
-14.3509 58.0104 -57.9238  255 255 255
-51.0747 51.5957 -35.3992  255 255 255
-51.0747 51.5957 -35.3992  255 255 255
-74.9541 47.4843 -19.9212  255 255 255
-74.2903 47.675 -20.7461  255 255 255
50.6014 33.2202 14.6376  255 255 255
47.1965 69.3021 -95.0769  255 255 255
47.1462 69.2479 -94.8885  255 255 255
-74.556 47.2993 -20.3292  255 255 255
-115.19 61.7556 -58.8116  255 255 255
-9.46148 58.38 -61.0958  255 255 255
53.4393 31.2512 19.2258  255 255 255
-107.724 57.219 -48.8888  255 255 255
53.2422 42.0206 -14.8182  255 255 255
45.0471 67.5518 -94.6004  255 255 255
-113.356 59.8046 -57.5838  255 255 255
52.5714 31.2057 17.0965  255 255 255
55.8921 28.6773 23.8906  255 255 255
-84.0807 44.2575 -15.266  255 255 255
-16.9948 55.4369 -58.4768  255 255 255
-16.9948 55.4369 -58.4768  255 255 255
56.6033 28.1468 25.3707  255 255 255
50.4136 43.0322 -20.7684  255 255 255
50.1174 43.0267 -21.7125  255 255 255
-51.4627 49.2981 -36.8932  255 255 255
-42.1032 50.7691 -43.1008  255 255 255
-36.0554 51.7196 -46.567  255 255 255
-63.109 47.1951 -29.5517  255 255 255
-57.2218 48.2485 -33.618  255 255 255
51.4574 30.973 14.8894  255 255 255
51.2237 30.8719 14.6667  255 255 255
53.3543 29.502 18.1345  255 255 255
55.92 28.0958 22.6244  255 255 255
-18.4254 53.8534 -58.837  255 255 255
-18.4344 53.8185 -58.7552  255 255 255
-9.2088 55.0336 -63.7219  255 255 255
-9.2088 55.0336 -63.7219  255 255 255
-101.272 51.3236 -41.4382  255 255 255
-78.1113 43.9836 -20.6959  255 255 255
-50.1013 48.0766 -39.0563  255 255 255
48.3847 42.1969 -25.5582  255 255 255
29.779 61.1793 -89.4875  255 255 255
49.8866 30.6335 11.114  255 255 255
-18.0802 52.7159 -60.0449  255 255 255
52.9041 28.7384 16.4167  255 255 255
52.9041 28.7384 16.4167  255 255 255
56.7541 26.7171 23.5124  255 255 255
52.2019 39.0098 -18.1053  255 255 255
22.4933 59.4275 -85.7604  255 255 255
19.9152 58.7234 -84.3264  255 255 255
-37.346 48.6675 -48.2556  255 255 255
59.193 24.5827 28.78  255 255 255
-11.1649 52.5854 -64.9135  255 255 255
59.8432 23.8874 29.9435  255 255 255
-9.31388 52.7368 -66.3674  255 255 255
59.7284 24.0039 29.3756  255 255 255
48.6512 62.428 -102.32  255 255 255
48.7637 62.5457 -102.569  255 255 255
59.9188 23.5585 29.9804  255 255 255
59.9665 23.5833 29.8992  255 255 255
52.8131 37.8923 -18.8848  255 255 255
52.8498 27.694 15.5054  255 255 255
59.9296 23.4033 28.8773  255 255 255
23.9148 57.1392 -88.2815  255 255 255
60.7243 22.6595 30.8455  255 255 255
-42.9637 45.5019 -46.2667  255 255 255
-29.5963 47.6277 -55.5628  255 255 255
50.2778 28.1859 9.99905  255 255 255
-66.9384 41.793 -31.2596  255 255 255
50.0992 27.9874 9.52765  255 255 255
50.4346 27.7612 10.0464  255 255 255
55.7016 24.8548 20.3253  255 255 255
60.236 22.2078 28.6159  255 255 255
60.5629 21.9846 29.4129  255 255 255
55.7357 24.5514 20.0497  255 255 255
55.7357 24.5514 20.0497  255 255 255
-103.889 47.4704 -49.518  255 255 255
